ply
format ascii 1.0
element vertex 525
property float x
property float y
property float z
property int group_id
end_header
0.000000 0.000000 -0.000000 0
0.099926 -0.003839 -0.098481 0
0.199411 -0.015344 -0.196962 0
0.298012 -0.034481 -0.295442 0
0.395291 -0.061194 -0.393923 0
0.490814 -0.095404 -0.492404 0
0.584147 -0.137011 -0.590885 0
0.674867 -0.185889 -0.689365 0
0.762553 -0.241896 -0.787846 0
0.846793 -0.304864 -0.886327 0
0.927184 -0.374607 -0.984808 0
1.003332 -0.450915 -1.083289 0
1.074854 -0.533562 -1.181769 0
1.141378 -0.622299 -1.280250 0
1.202544 -0.716860 -1.378731 0
1.258006 -0.816959 -1.477212 0
1.307432 -0.922292 -1.575692 0
1.350505 -1.032539 -1.674173 0
1.386924 -1.147363 -1.772654 0
1.416404 -1.266412 -1.871135 0
1.438680 -1.389317 -1.969616 0
0.000000 0.000000 -0.000000 1
0.099926 -0.003839 -0.076604 1
0.199411 -0.015344 -0.153209 1
0.298012 -0.034481 -0.229813 1
0.395291 -0.061194 -0.306418 1
0.490814 -0.095404 -0.383022 1
0.584147 -0.137011 -0.459627 1
0.674867 -0.185889 -0.536231 1
0.762553 -0.241896 -0.612836 1
0.846793 -0.304864 -0.689440 1
0.927184 -0.374607 -0.766044 1
1.003332 -0.450915 -0.842649 1
1.074854 -0.533562 -0.919253 1
1.141378 -0.622299 -0.995858 1
1.202544 -0.716860 -1.072462 1
1.258006 -0.816959 -1.149067 1
1.307432 -0.922292 -1.225671 1
1.350505 -1.032539 -1.302276 1
1.386924 -1.147363 -1.378880 1
1.416404 -1.266412 -1.455484 1
1.438680 -1.389317 -1.532089 1
0.000000 0.000000 0.000000 2
0.099926 -0.003839 0.000000 2
0.199411 -0.015344 0.000000 2
0.298012 -0.034481 0.000000 2
0.395291 -0.061194 0.000000 2
0.490814 -0.095404 0.000000 2
0.584147 -0.137011 0.000000 2
0.674867 -0.185889 0.000000 2
0.762553 -0.241896 0.000000 2
0.846793 -0.304864 0.000000 2
0.927184 -0.374607 0.000000 2
1.003332 -0.450915 0.000000 2
1.074854 -0.533562 0.000000 2
1.141378 -0.622299 0.000000 2
1.202544 -0.716860 0.000000 2
1.258006 -0.816959 0.000000 2
1.307432 -0.922292 0.000000 2
1.350505 -1.032539 0.000000 2
1.386924 -1.147363 0.000000 2
1.416404 -1.266412 0.000000 2
1.438680 -1.389317 0.000000 2
0.000000 0.000000 0.000000 3
0.099926 -0.003839 0.076604 3
0.199411 -0.015344 0.153209 3
0.298012 -0.034481 0.229813 3
0.395291 -0.061194 0.306418 3
0.490814 -0.095404 0.383022 3
0.584147 -0.137011 0.459627 3
0.674867 -0.185889 0.536231 3
0.762553 -0.241896 0.612836 3
0.846793 -0.304864 0.689440 3
0.927184 -0.374607 0.766044 3
1.003332 -0.450915 0.842649 3
1.074854 -0.533562 0.919253 3
1.141378 -0.622299 0.995858 3
1.202544 -0.716860 1.072462 3
1.258006 -0.816959 1.149067 3
1.307432 -0.922292 1.225671 3
1.350505 -1.032539 1.302276 3
1.386924 -1.147363 1.378880 3
1.416404 -1.266412 1.455484 3
1.438680 -1.389317 1.532089 3
0.000000 0.000000 0.000000 4
0.099926 -0.003839 0.098481 4
0.199411 -0.015344 0.196962 4
0.298012 -0.034481 0.295442 4
0.395291 -0.061194 0.393923 4
0.490814 -0.095404 0.492404 4
0.584147 -0.137011 0.590885 4
0.674867 -0.185889 0.689365 4
0.762553 -0.241896 0.787846 4
0.846793 -0.304864 0.886327 4
0.927184 -0.374607 0.984808 4
1.003332 -0.450915 1.083289 4
1.074854 -0.533562 1.181769 4
1.141378 -0.622299 1.280250 4
1.202544 -0.716860 1.378731 4
1.258006 -0.816959 1.477212 4
1.307432 -0.922292 1.575692 4
1.350505 -1.032539 1.674173 4
1.386924 -1.147363 1.772654 4
1.416404 -1.266412 1.871135 4
1.438680 -1.389317 1.969616 4
0.000000 0.000000 -0.000000 5
0.099982 -0.001920 -0.098481 5
0.199853 -0.007678 -0.196962 5
0.299503 -0.017269 -0.295442 5
0.398821 -0.030688 -0.393923 5
0.497698 -0.047923 -0.492404 5
0.596024 -0.068962 -0.590885 5
0.693688 -0.093790 -0.689365 5
0.790583 -0.122389 -0.787846 5
0.886598 -0.154736 -0.886327 5
0.981627 -0.190809 -0.984808 5
1.075562 -0.230580 -1.083289 5
1.168295 -0.274021 -1.181769 5
1.259720 -0.321099 -1.280250 5
1.349734 -0.371779 -1.378731 5
1.438230 -0.426023 -1.477212 5
1.525105 -0.483792 -1.575692 5
1.610257 -0.545042 -1.674173 5
1.693585 -0.609728 -1.772654 5
1.774989 -0.677802 -1.871135 5
1.854368 -0.749213 -1.969616 5
0.000000 0.000000 -0.000000 6
0.099982 -0.001920 -0.076604 6
0.199853 -0.007678 -0.153209 6
0.299503 -0.017269 -0.229813 6
0.398821 -0.030688 -0.306418 6
0.497698 -0.047923 -0.383022 6
0.596024 -0.068962 -0.459627 6
0.693688 -0.093790 -0.536231 6
0.790583 -0.122389 -0.612836 6
0.886598 -0.154736 -0.689440 6
0.981627 -0.190809 -0.766044 6
1.075562 -0.230580 -0.842649 6
1.168295 -0.274021 -0.919253 6
1.259720 -0.321099 -0.995858 6
1.349734 -0.371779 -1.072462 6
1.438230 -0.426023 -1.149067 6
1.525105 -0.483792 -1.225671 6
1.610257 -0.545042 -1.302276 6
1.693585 -0.609728 -1.378880 6
1.774989 -0.677802 -1.455484 6
1.854368 -0.749213 -1.532089 6
0.000000 0.000000 0.000000 7
0.099982 -0.001920 0.000000 7
0.199853 -0.007678 0.000000 7
0.299503 -0.017269 0.000000 7
0.398821 -0.030688 0.000000 7
0.497698 -0.047923 0.000000 7
0.596024 -0.068962 0.000000 7
0.693688 -0.093790 0.000000 7
0.790583 -0.122389 0.000000 7
0.886598 -0.154736 0.000000 7
0.981627 -0.190809 0.000000 7
1.075562 -0.230580 0.000000 7
1.168295 -0.274021 0.000000 7
1.259720 -0.321099 0.000000 7
1.349734 -0.371779 0.000000 7
1.438230 -0.426023 0.000000 7
1.525105 -0.483792 0.000000 7
1.610257 -0.545042 0.000000 7
1.693585 -0.609728 0.000000 7
1.774989 -0.677802 0.000000 7
1.854368 -0.749213 0.000000 7
0.000000 0.000000 0.000000 8
0.099982 -0.001920 0.076604 8
0.199853 -0.007678 0.153209 8
0.299503 -0.017269 0.229813 8
0.398821 -0.030688 0.306418 8
0.497698 -0.047923 0.383022 8
0.596024 -0.068962 0.459627 8
0.693688 -0.093790 0.536231 8
0.790583 -0.122389 0.612836 8
0.886598 -0.154736 0.689440 8
0.981627 -0.190809 0.766044 8
1.075562 -0.230580 0.842649 8
1.168295 -0.274021 0.919253 8
1.259720 -0.321099 0.995858 8
1.349734 -0.371779 1.072462 8
1.438230 -0.426023 1.149067 8
1.525105 -0.483792 1.225671 8
1.610257 -0.545042 1.302276 8
1.693585 -0.609728 1.378880 8
1.774989 -0.677802 1.455484 8
1.854368 -0.749213 1.532089 8
0.000000 0.000000 0.000000 9
0.099982 -0.001920 0.098481 9
0.199853 -0.007678 0.196962 9
0.299503 -0.017269 0.295442 9
0.398821 -0.030688 0.393923 9
0.497698 -0.047923 0.492404 9
0.596024 -0.068962 0.590885 9
0.693688 -0.093790 0.689365 9
0.790583 -0.122389 0.787846 9
0.886598 -0.154736 0.886327 9
0.981627 -0.190809 0.984808 9
1.075562 -0.230580 1.083289 9
1.168295 -0.274021 1.181769 9
1.259720 -0.321099 1.280250 9
1.349734 -0.371779 1.378731 9
1.438230 -0.426023 1.477212 9
1.525105 -0.483792 1.575692 9
1.610257 -0.545042 1.674173 9
1.693585 -0.609728 1.772654 9
1.774989 -0.677802 1.871135 9
1.854368 -0.749213 1.969616 9
0.000000 0.000000 -0.000000 10
0.100000 0.000000 -0.098481 10
0.200000 0.000000 -0.196962 10
0.300000 0.000000 -0.295442 10
0.400000 0.000000 -0.393923 10
0.500000 0.000000 -0.492404 10
0.600000 0.000000 -0.590885 10
0.700000 0.000000 -0.689365 10
0.800000 0.000000 -0.787846 10
0.900000 0.000000 -0.886327 10
1.000000 0.000000 -0.984808 10
1.100000 0.000000 -1.083289 10
1.200000 0.000000 -1.181769 10
1.300000 0.000000 -1.280250 10
1.400000 0.000000 -1.378731 10
1.500000 0.000000 -1.477212 10
1.600000 0.000000 -1.575692 10
1.700000 0.000000 -1.674173 10
1.800000 0.000000 -1.772654 10
1.900000 0.000000 -1.871135 10
2.000000 0.000000 -1.969616 10
0.000000 0.000000 -0.000000 11
0.100000 0.000000 -0.076604 11
0.200000 0.000000 -0.153209 11
0.300000 0.000000 -0.229813 11
0.400000 0.000000 -0.306418 11
0.500000 0.000000 -0.383022 11
0.600000 0.000000 -0.459627 11
0.700000 0.000000 -0.536231 11
0.800000 0.000000 -0.612836 11
0.900000 0.000000 -0.689440 11
1.000000 0.000000 -0.766044 11
1.100000 0.000000 -0.842649 11
1.200000 0.000000 -0.919253 11
1.300000 0.000000 -0.995858 11
1.400000 0.000000 -1.072462 11
1.500000 0.000000 -1.149067 11
1.600000 0.000000 -1.225671 11
1.700000 0.000000 -1.302276 11
1.800000 0.000000 -1.378880 11
1.900000 0.000000 -1.455484 11
2.000000 0.000000 -1.532089 11
0.000000 0.000000 0.000000 12
0.100000 0.000000 0.000000 12
0.200000 0.000000 0.000000 12
0.300000 0.000000 0.000000 12
0.400000 0.000000 0.000000 12
0.500000 0.000000 0.000000 12
0.600000 0.000000 0.000000 12
0.700000 0.000000 0.000000 12
0.800000 0.000000 0.000000 12
0.900000 0.000000 0.000000 12
1.000000 0.000000 0.000000 12
1.100000 0.000000 0.000000 12
1.200000 0.000000 0.000000 12
1.300000 0.000000 0.000000 12
1.400000 0.000000 0.000000 12
1.500000 0.000000 0.000000 12
1.600000 0.000000 0.000000 12
1.700000 0.000000 0.000000 12
1.800000 0.000000 0.000000 12
1.900000 0.000000 0.000000 12
2.000000 0.000000 0.000000 12
0.000000 0.000000 0.000000 13
0.100000 0.000000 0.076604 13
0.200000 0.000000 0.153209 13
0.300000 0.000000 0.229813 13
0.400000 0.000000 0.306418 13
0.500000 0.000000 0.383022 13
0.600000 0.000000 0.459627 13
0.700000 0.000000 0.536231 13
0.800000 0.000000 0.612836 13
0.900000 0.000000 0.689440 13
1.000000 0.000000 0.766044 13
1.100000 0.000000 0.842649 13
1.200000 0.000000 0.919253 13
1.300000 0.000000 0.995858 13
1.400000 0.000000 1.072462 13
1.500000 0.000000 1.149067 13
1.600000 0.000000 1.225671 13
1.700000 0.000000 1.302276 13
1.800000 0.000000 1.378880 13
1.900000 0.000000 1.455484 13
2.000000 0.000000 1.532089 13
0.000000 0.000000 0.000000 14
0.100000 0.000000 0.098481 14
0.200000 0.000000 0.196962 14
0.300000 0.000000 0.295442 14
0.400000 0.000000 0.393923 14
0.500000 0.000000 0.492404 14
0.600000 0.000000 0.590885 14
0.700000 0.000000 0.689365 14
0.800000 0.000000 0.787846 14
0.900000 0.000000 0.886327 14
1.000000 0.000000 0.984808 14
1.100000 0.000000 1.083289 14
1.200000 0.000000 1.181769 14
1.300000 0.000000 1.280250 14
1.400000 0.000000 1.378731 14
1.500000 0.000000 1.477212 14
1.600000 0.000000 1.575692 14
1.700000 0.000000 1.674173 14
1.800000 0.000000 1.772654 14
1.900000 0.000000 1.871135 14
2.000000 0.000000 1.969616 14
0.000000 0.000000 -0.000000 15
0.099982 0.001920 -0.098481 15
0.199853 0.007678 -0.196962 15
0.299503 0.017269 -0.295442 15
0.398821 0.030688 -0.393923 15
0.497698 0.047923 -0.492404 15
0.596024 0.068962 -0.590885 15
0.693688 0.093790 -0.689365 15
0.790583 0.122389 -0.787846 15
0.886598 0.154736 -0.886327 15
0.981627 0.190809 -0.984808 15
1.075562 0.230580 -1.083289 15
1.168295 0.274021 -1.181769 15
1.259720 0.321099 -1.280250 15
1.349734 0.371779 -1.378731 15
1.438230 0.426023 -1.477212 15
1.525105 0.483792 -1.575692 15
1.610257 0.545042 -1.674173 15
1.693585 0.609728 -1.772654 15
1.774989 0.677802 -1.871135 15
1.854368 0.749213 -1.969616 15
0.000000 0.000000 -0.000000 16
0.099982 0.001920 -0.076604 16
0.199853 0.007678 -0.153209 16
0.299503 0.017269 -0.229813 16
0.398821 0.030688 -0.306418 16
0.497698 0.047923 -0.383022 16
0.596024 0.068962 -0.459627 16
0.693688 0.093790 -0.536231 16
0.790583 0.122389 -0.612836 16
0.886598 0.154736 -0.689440 16
0.981627 0.190809 -0.766044 16
1.075562 0.230580 -0.842649 16
1.168295 0.274021 -0.919253 16
1.259720 0.321099 -0.995858 16
1.349734 0.371779 -1.072462 16
1.438230 0.426023 -1.149067 16
1.525105 0.483792 -1.225671 16
1.610257 0.545042 -1.302276 16
1.693585 0.609728 -1.378880 16
1.774989 0.677802 -1.455484 16
1.854368 0.749213 -1.532089 16
0.000000 0.000000 0.000000 17
0.099982 0.001920 0.000000 17
0.199853 0.007678 0.000000 17
0.299503 0.017269 0.000000 17
0.398821 0.030688 0.000000 17
0.497698 0.047923 0.000000 17
0.596024 0.068962 0.000000 17
0.693688 0.093790 0.000000 17
0.790583 0.122389 0.000000 17
0.886598 0.154736 0.000000 17
0.981627 0.190809 0.000000 17
1.075562 0.230580 0.000000 17
1.168295 0.274021 0.000000 17
1.259720 0.321099 0.000000 17
1.349734 0.371779 0.000000 17
1.438230 0.426023 0.000000 17
1.525105 0.483792 0.000000 17
1.610257 0.545042 0.000000 17
1.693585 0.609728 0.000000 17
1.774989 0.677802 0.000000 17
1.854368 0.749213 0.000000 17
0.000000 0.000000 0.000000 18
0.099982 0.001920 0.076604 18
0.199853 0.007678 0.153209 18
0.299503 0.017269 0.229813 18
0.398821 0.030688 0.306418 18
0.497698 0.047923 0.383022 18
0.596024 0.068962 0.459627 18
0.693688 0.093790 0.536231 18
0.790583 0.122389 0.612836 18
0.886598 0.154736 0.689440 18
0.981627 0.190809 0.766044 18
1.075562 0.230580 0.842649 18
1.168295 0.274021 0.919253 18
1.259720 0.321099 0.995858 18
1.349734 0.371779 1.072462 18
1.438230 0.426023 1.149067 18
1.525105 0.483792 1.225671 18
1.610257 0.545042 1.302276 18
1.693585 0.609728 1.378880 18
1.774989 0.677802 1.455484 18
1.854368 0.749213 1.532089 18
0.000000 0.000000 0.000000 19
0.099982 0.001920 0.098481 19
0.199853 0.007678 0.196962 19
0.299503 0.017269 0.295442 19
0.398821 0.030688 0.393923 19
0.497698 0.047923 0.492404 19
0.596024 0.068962 0.590885 19
0.693688 0.093790 0.689365 19
0.790583 0.122389 0.787846 19
0.886598 0.154736 0.886327 19
0.981627 0.190809 0.984808 19
1.075562 0.230580 1.083289 19
1.168295 0.274021 1.181769 19
1.259720 0.321099 1.280250 19
1.349734 0.371779 1.378731 19
1.438230 0.426023 1.477212 19
1.525105 0.483792 1.575692 19
1.610257 0.545042 1.674173 19
1.693585 0.609728 1.772654 19
1.774989 0.677802 1.871135 19
1.854368 0.749213 1.969616 19
0.000000 0.000000 -0.000000 20
0.099926 0.003839 -0.098481 20
0.199411 0.015344 -0.196962 20
0.298012 0.034481 -0.295442 20
0.395291 0.061194 -0.393923 20
0.490814 0.095404 -0.492404 20
0.584147 0.137011 -0.590885 20
0.674867 0.185889 -0.689365 20
0.762553 0.241896 -0.787846 20
0.846793 0.304864 -0.886327 20
0.927184 0.374607 -0.984808 20
1.003332 0.450915 -1.083289 20
1.074854 0.533562 -1.181769 20
1.141378 0.622299 -1.280250 20
1.202544 0.716860 -1.378731 20
1.258006 0.816959 -1.477212 20
1.307432 0.922292 -1.575692 20
1.350505 1.032539 -1.674173 20
1.386924 1.147363 -1.772654 20
1.416404 1.266412 -1.871135 20
1.438680 1.389317 -1.969616 20
0.000000 0.000000 -0.000000 21
0.099926 0.003839 -0.076604 21
0.199411 0.015344 -0.153209 21
0.298012 0.034481 -0.229813 21
0.395291 0.061194 -0.306418 21
0.490814 0.095404 -0.383022 21
0.584147 0.137011 -0.459627 21
0.674867 0.185889 -0.536231 21
0.762553 0.241896 -0.612836 21
0.846793 0.304864 -0.689440 21
0.927184 0.374607 -0.766044 21
1.003332 0.450915 -0.842649 21
1.074854 0.533562 -0.919253 21
1.141378 0.622299 -0.995858 21
1.202544 0.716860 -1.072462 21
1.258006 0.816959 -1.149067 21
1.307432 0.922292 -1.225671 21
1.350505 1.032539 -1.302276 21
1.386924 1.147363 -1.378880 21
1.416404 1.266412 -1.455484 21
1.438680 1.389317 -1.532089 21
0.000000 0.000000 0.000000 22
0.099926 0.003839 0.000000 22
0.199411 0.015344 0.000000 22
0.298012 0.034481 0.000000 22
0.395291 0.061194 0.000000 22
0.490814 0.095404 0.000000 22
0.584147 0.137011 0.000000 22
0.674867 0.185889 0.000000 22
0.762553 0.241896 0.000000 22
0.846793 0.304864 0.000000 22
0.927184 0.374607 0.000000 22
1.003332 0.450915 0.000000 22
1.074854 0.533562 0.000000 22
1.141378 0.622299 0.000000 22
1.202544 0.716860 0.000000 22
1.258006 0.816959 0.000000 22
1.307432 0.922292 0.000000 22
1.350505 1.032539 0.000000 22
1.386924 1.147363 0.000000 22
1.416404 1.266412 0.000000 22
1.438680 1.389317 0.000000 22
0.000000 0.000000 0.000000 23
0.099926 0.003839 0.076604 23
0.199411 0.015344 0.153209 23
0.298012 0.034481 0.229813 23
0.395291 0.061194 0.306418 23
0.490814 0.095404 0.383022 23
0.584147 0.137011 0.459627 23
0.674867 0.185889 0.536231 23
0.762553 0.241896 0.612836 23
0.846793 0.304864 0.689440 23
0.927184 0.374607 0.766044 23
1.003332 0.450915 0.842649 23
1.074854 0.533562 0.919253 23
1.141378 0.622299 0.995858 23
1.202544 0.716860 1.072462 23
1.258006 0.816959 1.149067 23
1.307432 0.922292 1.225671 23
1.350505 1.032539 1.302276 23
1.386924 1.147363 1.378880 23
1.416404 1.266412 1.455484 23
1.438680 1.389317 1.532089 23
0.000000 0.000000 0.000000 24
0.099926 0.003839 0.098481 24
0.199411 0.015344 0.196962 24
0.298012 0.034481 0.295442 24
0.395291 0.061194 0.393923 24
0.490814 0.095404 0.492404 24
0.584147 0.137011 0.590885 24
0.674867 0.185889 0.689365 24
0.762553 0.241896 0.787846 24
0.846793 0.304864 0.886327 24
0.927184 0.374607 0.984808 24
1.003332 0.450915 1.083289 24
1.074854 0.533562 1.181769 24
1.141378 0.622299 1.280250 24
1.202544 0.716860 1.378731 24
1.258006 0.816959 1.477212 24
1.307432 0.922292 1.575692 24
1.350505 1.032539 1.674173 24
1.386924 1.147363 1.772654 24
1.416404 1.266412 1.871135 24
1.438680 1.389317 1.969616 24
